# .PCD v0.7 - Point Cloud Data file format
VERSION 0.7
FIELDS x y z intensity
SIZE 4 4 4 4
TYPE F F F F
COUNT 1 1 1 1
WIDTH 1492
HEIGHT 1
VIEWPOINT 0 0 0 1 0 0 0
POINTS 1492
DATA ascii
-4.7591548 -0.10242162 2.2987294 0
3.533308 -0.19830304 2.3234887 0
3.7265031 -0.18130986 2.2866771 0
3.9116256 -0.16750467 2.2991776 0
4.105134 -0.17610055 2.3016686 0
4.3261504 -0.18299858 2.2937281 0
4.5082312 -0.17908531 2.2969129 0
4.6982508 -0.15947047 2.3002174 0
4.898294 -0.13000043 2.3020484 0
5.1061826 -0.12115525 2.2984219 0
5.2992363 -0.10060608 2.2911148 0
5.4958644 -0.081334181 2.3037589 0
5.7059455 -0.062784225 2.2930343 0
5.8904395 -0.041381896 2.302629 0
6.0875731 -0.032336231 2.2971234 0
6.2851315 -0.039220493 2.2995424 0
6.4991603 -0.027704205 2.2905028 0
6.6951017 -0.027109232 2.3096383 0
6.8834915 -0.017159918 2.2856185 0
7.1010733 -0.0084788203 2.3271875 0
17.466194 -0.11202419 2.3313375 0
-4.8134146 0.12667283 2.3067918 0
-4.7750592 0.094870344 2.2964361 0
4.9630613 0.02061677 2.3065262 0
5.2381516 0.027725577 2.3777072 0
5.4642444 0.031161627 2.275573 0
5.6782088 0.034562334 2.2769198 0
5.9252963 0.030845616 2.3050497 0
6.0939698 0.032079633 2.3045096 0
6.3063388 0.030113066 2.2995389 0
6.5053082 0.044071756 2.2981076 0
6.6990118 0.066178359 2.2969754 0
6.9040999 0.080938525 2.2964747 0
7.124773 0.12346999 2.3027632 0
7.2111983 0.15642524 2.2814405 0
-4.8165088 0.31832066 2.3030272 0
-4.7817178 0.28397697 2.2940948 0
6.6259146 0.23806608 2.3018627 0
6.9357491 0.24418211 2.3482258 0
7.1568303 0.30382213 2.3069048 0
7.240087 0.31200793 2.3048816 0
8.2936735 0.3643868 2.3092105 0
8.5181808 0.35477212 2.2962439 0
8.6761246 0.36903396 2.2998869 0
8.8895302 0.35333869 2.2934914 0
9.1159792 0.37761858 2.3436787 0
9.4544268 0.35867307 2.2963171 0
9.6776171 0.37362787 2.3213885 0
9.8832016 0.37880921 2.3611376 0
10.018007 0.39660132 2.3864908 0
-4.82587 0.50592119 2.3050766 0
-4.7881908 0.46947217 2.2875595 0
-3.2719104 0.57606018 2.3286331 0
-3.1246052 0.57126319 2.3231692 0
7.1406054 0.50041986 2.3071959 0
7.2837338 0.552275 2.2682803 0
7.4225311 0.56866539 2.2694869 0
8.1399412 0.52943814 2.3038096 0
8.3342295 0.54406214 2.3055923 0
8.5135431 0.49929345 2.3238516 0
8.6737137 0.51831931 2.3256204 0
8.9097338 0.52105731 2.3318524 0
9.1023026 0.5023638 2.3421431 0
9.2812281 0.5031153 2.350136 0
9.5032997 0.49269697 2.3566358 0
9.6944838 0.52084792 2.3499503 0
9.9178753 0.52415347 2.34988 0
10.109528 0.51631206 2.3646193 0
10.238729 0.56443727 2.3513556 0
10.516602 0.51873356 2.3369861 0
10.696613 0.49091992 2.3310182 0
10.903979 0.49134392 2.3259368 0
11.074085 0.56241918 2.3537643 0
11.636123 0.53132737 2.2963605 0
12.067168 0.53406072 2.3778553 0
-4.8441644 0.70267069 2.3006511 0
-4.7948079 0.65571368 2.2720942 0
-3.4114428 0.74547839 2.342108 0
-3.3284187 0.6845488 2.3299105 0
-3.1042411 0.70976299 2.3474157 0
-2.993376 0.73286581 2.3817558 0
7.1226072 0.70089853 2.3410237 0
7.3431025 0.69071776 2.269146 0
7.4353232 0.69835407 2.2895231 0
8.1641998 0.73062086 2.2915115 0
8.3051882 0.69453704 2.3211119 0
8.5007448 0.71034002 2.3347938 0
8.7114773 0.70197642 2.3315907 0
8.9074192 0.6985749 2.3485425 0
9.0606108 0.70286113 2.3441932 0
9.288393 0.69731343 2.3663411 0
9.4804306 0.69192261 2.3631966 0
9.7124529 0.69839686 2.3614104 0
9.8989191 0.70636177 2.3677132 0
10.105972 0.72901481 2.3624566 0
10.308795 0.69350749 2.3666821 0
10.505251 0.69778234 2.3631141 0
10.729053 0.70860565 2.3536282 0
10.91206 0.66134298 2.3569295 0
11.07181 0.69663382 2.3703246 0
11.255092 0.68633932 2.3581126 0
11.481201 0.72098666 2.3755441 0
11.664252 0.70739967 2.3827505 0
11.897986 0.74318749 2.3702741 0
12.598103 0.62313449 2.3395147 0
12.684525 0.76278329 2.3566155 0
-4.8626504 0.90113246 2.2983513 0
-3.4133523 0.85449594 2.3391533 0
-3.3050067 0.88246602 2.326736 0
-3.1205702 0.8731094 2.3341413 0
0.60100269 0.97737849 2.3812284 0
7.1091242 0.89869893 2.3385055 0
7.363687 0.916673 2.2672453 0
7.4295163 0.88290018 2.2973244 0
8.1979485 0.91463023 2.2882478 0
8.283349 0.89292693 2.3077347 0
8.4992352 0.89519525 2.3319569 0
8.6994438 0.90918994 2.3398609 0
8.8956757 0.90651906 2.3509181 0
9.0966015 0.89777148 2.3504586 0
9.3055229 0.90406114 2.3674655 0
9.5100012 0.90239739 2.360194 0
9.7034206 0.88657933 2.3664804 0
9.9341946 0.89623797 2.3617589 0
10.087586 0.92504048 2.3709896 0
10.286941 0.90332609 2.3708851 0
10.496889 0.89267957 2.3623385 0
10.697743 0.90248585 2.356245 0
10.849645 0.90249157 2.3649299 0
11.076985 0.8739171 2.3727212 0
11.251637 0.9537974 2.3785939 0
11.457341 0.86906475 2.3801348 0
11.746085 0.80862457 2.3982801 0
11.94567 0.87047261 2.3756754 0
12.423623 0.88383508 2.3462405 0
12.735955 0.84627336 2.3535435 0
12.848103 0.90168452 2.3867221 0
16.095455 0.88690811 2.2406607 0
-4.8809943 1.1005694 2.2972906 0
-3.2966521 1.0314275 2.3056414 0
-3.1782112 1.05276 2.3314598 0
0.38257459 1.1326373 2.3878996 0
0.49267969 1.0716783 2.3522847 0
0.65693402 1.1229401 2.3788891 0
7.0846 1.1004822 2.3385968 0
7.344955 1.1065456 2.2656968 0
7.4129791 1.0727845 2.2945263 0
8.3134041 1.0927552 2.3112357 0
8.498621 1.1033999 2.3243995 0
8.7068377 1.0976652 2.3345902 0
8.9003992 1.09631 2.3512661 0
9.1123257 1.0995946 2.3584628 0
9.3003588 1.0971224 2.3581707 0
9.4857035 1.1113373 2.3559873 0
9.6968174 1.1072928 2.3595076 0
9.9220562 1.113852 2.3584549 0
10.076681 1.0963929 2.3743258 0
10.281477 1.1000968 2.3734946 0
10.497258 1.1116419 2.3716316 0
10.71116 1.0953609 2.3595769 0
10.871921 1.1173478 2.3566179 0
11.151046 1.0878143 2.3716269 0
11.321225 1.1285341 2.3969979 0
11.529095 1.0917772 2.3990908 0
11.658078 1.1898999 2.3489978 0
11.815974 1.1744423 2.3841844 0
12.02387 1.0705371 2.3949997 0
12.439201 1.0049825 2.345578 0
12.766147 1.1227283 2.390696 0
12.862445 1.0829642 2.3860035 0
13.665546 1.09533 2.3909068 0
-4.9090085 1.2998316 2.2985356 0
0.38033685 1.272434 2.3842547 0
0.49131021 1.3198386 2.3573568 0
0.65868062 1.2613454 2.3844051 0
6.9927568 1.3846579 2.3420937 0
7.069674 1.301 2.3342164 0
7.3260398 1.2999785 2.266813 0
7.4042406 1.2124404 2.3029208 0
8.1539307 1.2593939 2.3069365 0
8.3402481 1.305056 2.3065245 0
8.4848623 1.2926927 2.3257501 0
8.6776848 1.2996877 2.3439622 0
8.8977289 1.289848 2.347147 0
9.0880871 1.3060374 2.353857 0
9.2842798 1.2884527 2.3594205 0
9.465169 1.3039229 2.357738 0
9.6737528 1.2928671 2.361639 0
9.9064884 1.3112226 2.3542254 0
10.105752 1.2956769 2.3707707 0
10.289444 1.3125174 2.3759978 0
10.516403 1.2875074 2.3772094 0
10.721388 1.3020476 2.3610282 0
10.8849 1.2960875 2.3668363 0
11.097995 1.2714961 2.3745737 0
11.310653 1.3271009 2.3868484 0
11.454915 1.2720789 2.3913577 0
11.678621 1.3447024 2.3724661 0
12.036494 1.3574853 2.3981411 0
12.396267 1.3197268 2.3916228 0
12.783095 1.3729057 2.3874669 0
12.85426 1.3249569 2.3814175 0
13.285992 1.2265536 2.3997314 0
13.698667 1.3094639 2.3992634 0
14.247485 1.2946997 2.3888085 0
15.986629 1.2860612 2.3538079 0
-13.304112 1.4318075 2.3029768 0
-4.9292507 1.4986137 2.2961056 0
6.9956226 1.5368919 2.3539734 0
7.0490918 1.5010476 2.3334043 0
7.302825 1.499045 2.2693725 0
8.1489201 1.4621799 2.2879024 0
8.3415575 1.4963262 2.323818 0
8.4905138 1.5064105 2.3195233 0
8.703104 1.4985291 2.3490925 0
8.9158115 1.4923874 2.3469095 0
9.1235695 1.5033852 2.352567 0
9.2411585 1.5030018 2.3575912 0
9.498477 1.4984756 2.3602281 0
9.6551552 1.5061413 2.3646228 0
9.906805 1.4965841 2.3592174 0
10.110581 1.500615 2.3767548 0
10.309521 1.4790816 2.3728633 0
10.465662 1.5006702 2.37659 0
10.681996 1.5239806 2.3758233 0
10.866899 1.4927642 2.3614392 0
11.076534 1.4740667 2.3683853 0
11.314324 1.5173025 2.3857729 0
11.401967 1.4602664 2.391118 0
11.650254 1.5333652 2.3791792 0
11.892631 1.5087754 2.3852727 0
12.029237 1.5872155 2.398246 0
12.433833 1.4434053 2.3949254 0
12.899851 1.5059445 2.3860557 0
13.526377 1.5841074 2.3805454 0
13.778547 1.5288033 2.3690574 0
14.154642 1.5869033 2.3928783 0
-13.291327 1.6648277 2.2889132 0
-5.0060749 1.7254268 2.2768645 0
-4.9477396 1.701694 2.2974896 0
6.990067 1.7217777 2.3531365 0
7.0373893 1.693711 2.3288481 0
7.2799182 1.6982931 2.2687554 0
8.1299686 1.6143442 2.2704163 0
8.2930536 1.7035739 2.3058083 0
8.4932652 1.7120106 2.3268106 0
8.6829596 1.6920902 2.3452966 0
8.8915224 1.7092384 2.3493755 0
9.0937119 1.7021583 2.3557839 0
9.2584314 1.7029561 2.3467534 0
9.504653 1.6956967 2.3594763 0
9.6458616 1.6919225 2.3694484 0
9.9181805 1.6887035 2.364176 0
10.076569 1.6913277 2.3684547 0
10.30399 1.6955886 2.3724997 0
10.489923 1.6921263 2.3811405 0
10.685392 1.6733992 2.3763244 0
10.881003 1.7045015 2.377311 0
11.109779 1.6558256 2.3718071 0
11.304907 1.718255 2.3855519 0
11.450887 1.686725 2.3946314 0
11.718456 1.6867304 2.3754265 0
12.021838 1.7019122 2.3978088 0
12.897255 1.6893873 2.3903136 0
13.462029 1.7374828 2.3895745 0
13.99576 1.7016041 2.3994401 0
14.036738 1.7265089 2.3858247 0
-13.417161 1.8804408 2.3246942 0
-5.013083 1.9421643 2.3038993 0
-4.9637051 1.8999045 2.2993689 0
6.9771805 1.9096049 2.349021 0
7.0638266 1.8895701 2.3075151 0
7.2537599 1.9009955 2.2713594 0
8.1177282 1.9287066 2.2743392 0
8.3158875 1.908525 2.3156514 0
8.5169287 1.8870332 2.3422966 0
8.6859932 1.9009361 2.3399422 0
8.899642 1.9043581 2.3503361 0
9.0957432 1.8993411 2.3577566 0
9.2890415 1.8917527 2.346776 0
9.5037804 1.9107547 2.3609107 0
9.6629095 1.8945909 2.3654051 0
9.9151964 1.9084429 2.3685174 0
10.070156 1.8968823 2.3700433 0
10.308073 1.8804777 2.3762648 0
10.480042 1.9009788 2.3768675 0
10.679566 1.8958694 2.380029 0
10.85329 1.9220041 2.3707023 0
11.10813 1.8665814 2.3836405 0
11.310937 1.910763 2.3851666 0
11.478715 1.9219317 2.3941207 0
11.986649 1.8726432 2.393503 0
12.370393 1.852778 2.316885 0
12.851981 1.9145696 2.3850341 0
16.26231 1.9103434 2.2574513 0
-5.0162139 2.1241508 2.3008149 0
-4.9687138 2.0892904 2.2954268 0
-3.6043425 2.1637251 2.3125906 0
-3.4857283 2.1519117 2.3189414 0
-3.3003147 2.1345534 2.3361766 0
-3.1918392 2.1834896 2.3321159 0
6.9648824 2.1007526 2.3425097 0
7.0950899 2.1041288 2.2897675 0
7.2333269 2.0951691 2.2732038 0
8.1513424 2.0954983 2.2875841 0
8.3016386 2.108741 2.3153408 0
8.5024099 2.101959 2.345752 0
8.6874485 2.0996709 2.342339 0
8.9119339 2.0929165 2.348819 0
9.0971537 2.1077018 2.3573649 0
9.306695 2.086447 2.3427944 0
9.4940815 2.111593 2.3564675 0
9.6563034 2.1052253 2.3633978 0
9.8868017 2.1086376 2.3661447 0
10.085464 2.0965455 2.3686128 0
10.29878 2.0921946 2.3677838 0
10.498654 2.0748942 2.3849018 0
10.653986 2.0951867 2.3732626 0
10.882701 2.1046381 2.3740478 0
11.124296 2.0781813 2.3842726 0
11.319839 2.0899656 2.3812823 0
11.492103 2.1220984 2.3861821 0
11.906333 2.0686057 2.3810549 0
12.019896 2.0729222 2.3892829 0
12.796024 2.0898874 2.3915255 0
12.843437 2.056818 2.377943 0
13.516522 2.1476767 2.3900471 0
13.977563 2.0579474 2.3903036 0
16.263678 2.0811648 2.2665801 0
-5.0219398 2.3079598 2.2960768 0
-4.9781098 2.2830362 2.2877972 0
-3.6015058 2.2088437 2.3161464 0
-3.5171638 2.3018754 2.3341563 0
-3.2645926 2.2971213 2.3425376 0
-3.1787317 2.2835228 2.3334253 0
6.9452872 2.3014076 2.342433 0
7.1284909 2.3088317 2.2683339 0
7.2203045 2.2802057 2.2772048 0
8.1235695 2.3219719 2.2967005 0
8.2994003 2.3061295 2.3184366 0
8.4950247 2.2916634 2.342653 0
8.6810484 2.2982643 2.3361535 0
8.9036226 2.2918048 2.3443477 0
9.088213 2.3052857 2.3552895 0
9.3042974 2.2979372 2.3489635 0
9.5101948 2.3090849 2.3563409 0
9.7132788 2.3105595 2.3698752 0
9.9262657 2.2889147 2.3648193 0
10.103181 2.2719824 2.3675208 0
10.282851 2.3053093 2.3713832 0
10.512279 2.2868519 2.387713 0
10.668756 2.322561 2.376148 0
10.913281 2.2519045 2.3820379 0
11.129589 2.237268 2.3836877 0
11.329586 2.3307831 2.3877368 0
11.447877 2.3187945 2.3860786 0
11.637379 2.3680668 2.3889835 0
11.876227 2.3411622 2.3795617 0
12.498114 2.3190761 2.3910515 0
12.859257 2.2322075 2.374402 0
13.331477 2.2751818 2.3681157 0
-5.0381007 2.5037642 2.2975011 0
-4.9821782 2.4905734 2.2868609 0
-3.455168 2.4364212 2.3420274 0
-3.3085568 2.4417658 2.3234222 0
-3.1503901 2.4412339 2.3588891 0
0.28925908 2.5406897 2.370064 0
0.48400021 2.542402 2.3696966 0
6.9248776 2.5029681 2.3387029 0
7.1409168 2.5008237 2.2700121 0
7.2122984 2.4654074 2.2775497 0
8.1549568 2.5155048 2.3130727 0
8.2976723 2.5052619 2.3185682 0
8.5060472 2.480696 2.3330722 0
8.681921 2.4974589 2.329282 0
8.8917465 2.5156951 2.3494914 0
9.074028 2.4894118 2.3518009 0
9.2949038 2.5011952 2.3451581 0
9.4686518 2.5026538 2.3537462 0
9.6952353 2.5016048 2.3673692 0
9.905077 2.4945838 2.3611367 0
10.091766 2.4933612 2.3623788 0
10.270967 2.5044355 2.3751674 0
10.548796 2.4957259 2.3814609 0
10.683372 2.4702308 2.3711531 0
10.96122 2.4727917 2.3883574 0
11.17013 2.5094182 2.3791485 0
11.323914 2.5100765 2.3823209 0
11.540272 2.4733224 2.3805656 0
11.700745 2.4336934 2.3715577 0
11.95228 2.5489974 2.3860507 0
12.499378 2.4502571 2.326153 0
12.725813 2.4789872 2.3981588 0
12.916607 2.56216 2.3701577 0
13.35853 2.5037665 2.3415952 0
16.149408 2.4916742 2.3247056 0
-5.0518327 2.700242 2.295696 0
-4.9803619 2.6999459 2.3006094 0
-3.3034017 2.6139808 2.3378754 0
0.19065714 2.7098434 2.3948693 0
0.26340163 2.7322559 2.3593266 0
0.49709576 2.7153685 2.3631973 0
6.9104371 2.7021363 2.3364415 0
7.1407857 2.7018678 2.27003 0
7.212266 2.6473494 2.2879903 0
8.1470318 2.7106121 2.3065677 0
8.3018427 2.7000687 2.3247745 0
8.523387 2.6970747 2.3269703 0
8.6899614 2.7085588 2.3364289 0
8.9007349 2.7022235 2.3497174 0
9.0661249 2.6935909 2.3434682 0
9.3064127 2.7005408 2.3487284 0
9.4852066 2.699286 2.3564377 0
9.7107496 2.6990092 2.363085 0
9.8933401 2.6977639 2.3570466 0
10.107624 2.6675711 2.3746729 0
10.275039 2.7173626 2.3746393 0
10.546162 2.6989338 2.373754 0
10.683904 2.6979303 2.3757398 0
10.897323 2.7096465 2.3806934 0
11.13664 2.6808951 2.3765409 0
11.30645 2.6849489 2.3870325 0
11.497231 2.6849403 2.3898277 0
11.681051 2.6892626 2.3742194 0
11.856945 2.6992803 2.3827786 0
13.420617 2.7017648 2.3309405 0
14.072815 2.6299963 2.3917 0
16.189003 2.6282845 2.316941 0
-5.0652003 2.8995028 2.2998729 0
-4.9631281 2.8838139 2.3261683 0
0.17460459 2.8229458 2.3716526 0
0.33494285 2.8410759 2.3624611 0
0.46019396 2.8284378 2.3738313 0
6.7962313 2.9371746 2.3230748 0
6.8930964 2.8999653 2.3357096 0
7.1310282 2.902005 2.2724941 0
7.2056971 2.8773575 2.2902372 0
8.1388359 2.9110856 2.3008993 0
8.2780113 2.8948627 2.3289952 0
8.5020924 2.9078801 2.3363721 0
8.677763 2.8981209 2.3301554 0
8.8909597 2.8972917 2.3509247 0
9.0674267 2.8990321 2.3371234 0
9.3245344 2.9031568 2.3554893 0
9.4856186 2.8902922 2.3598142 0
9.6999016 2.9087467 2.3513119 0
9.8930616 2.8928711 2.3597951 0
10.114785 2.9355121 2.3669422 0
10.268606 2.8925521 2.371222 0
10.530077 2.8953958 2.3797774 0
10.64162 2.8954682 2.3729925 0
10.932249 2.9311519 2.3848326 0
11.12576 2.9089043 2.3777149 0
11.32144 2.8848195 2.3805461 0
11.508089 2.8706751 2.3868194 0
11.621804 2.9051809 2.3929799 0
11.895375 2.9217415 2.3850932 0
12.389489 2.8110738 2.3695035 0
12.553955 2.8960943 2.3651347 0
12.604162 2.8602555 2.399524 0
13.375787 2.9744856 2.3361309 0
-5.0803194 3.0997345 2.2991841 0
-4.9434319 3.1060047 2.2841554 0
6.784122 3.1084664 2.3321877 0
6.8794074 3.0993261 2.3329496 0
7.1207385 3.0986981 2.2727439 0
8.1359673 3.0968707 2.3033583 0
8.3143835 3.1039734 2.3308337 0
8.5309219 3.0973389 2.3392346 0
8.6908941 3.0936007 2.3359699 0
8.8908186 3.0928948 2.3479912 0
9.0600643 3.095998 2.3383319 0
9.3037348 3.1072357 2.357837 0
9.4759426 3.0977728 2.3623843 0
9.6996346 3.1017976 2.3577347 0
9.8729219 3.1010427 2.3600323 0
10.104671 3.0951576 2.36358 0
10.296083 3.1229019 2.3758464 0
10.51673 3.1043274 2.3785756 0
10.687318 3.1171663 2.3701234 0
10.855405 3.0788548 2.3793919 0
11.142201 3.0954173 2.3822737 0
11.340978 3.0936363 2.3905969 0
11.474546 3.0766721 2.3788688 0
11.714235 3.1553764 2.3783467 0
11.859355 3.1118457 2.3865004 0
12.285984 3.0179114 2.3687696 0
12.755594 3.1939578 2.3591428 0
13.470551 3.0024228 2.3959045 0
13.635374 3.0831211 2.3799806 0
16.130758 3.0771079 2.373318 0
-5.2095046 3.3222301 2.2916462 0
-5.0943756 3.2996094 2.2976148 0
-4.9380164 3.2867773 2.2940493 0
6.7690754 3.3091552 2.344552 0
6.8618879 3.3012199 2.3310735 0
7.1080022 3.2996829 2.2707117 0
7.2017112 3.2839835 2.302053 0
7.9620047 3.3636427 2.2742779 0
8.1165543 3.2938066 2.3077567 0
8.3082409 3.3055542 2.3293688 0
8.5172911 3.2977455 2.3374875 0
8.6970482 3.3020535 2.3378382 0
8.8840437 3.291482 2.3443358 0
9.0704269 3.3013701 2.3540757 0
9.313818 3.3118191 2.3607373 0
9.4704561 3.30123 2.3627212 0
9.6624861 3.2958736 2.3509331 0
9.8816071 3.2947452 2.3681293 0
10.146436 3.2909079 2.3684397 0
10.26189 3.3179028 2.3813803 0
10.513043 3.3091695 2.3736718 0
10.691414 3.3198087 2.3907735 0
10.860735 3.2919583 2.3753128 0
11.122589 3.3075349 2.3797374 0
11.307839 3.3013356 2.3895471 0
11.474584 3.2652481 2.3754616 0
11.796707 3.3898547 2.3877861 0
11.829445 3.2793639 2.3812296 0
12.386127 3.35273 2.3962617 0
12.440022 3.2764418 2.3752646 0
13.351536 3.3212352 2.3475015 0
14.086924 3.2890739 2.3629708 0
16.11306 3.249393 2.3705921 0
-5.2134957 3.5142653 2.3149593 0
-5.1097031 3.5010555 2.2971108 0
-4.9584856 3.5088527 2.2794077 0
-2.4928277 3.5971079 2.2901635 0
-2.3262889 3.5582092 2.2951825 0
6.7804623 3.5202148 2.355886 0
6.8492284 3.4929473 2.3217187 0
7.0977249 3.4999728 2.2702026 0
7.2331581 3.4419265 2.2823064 0
7.9837689 3.5216026 2.277957 0
8.1041765 3.4965091 2.3129718 0
8.2802067 3.4980819 2.3435931 0
8.5194483 3.5083239 2.3251841 0
8.6779299 3.5012608 2.3405426 0
8.9135408 3.4969466 2.349875 0
9.0766392 3.5026796 2.3490281 0
9.3107929 3.5093906 2.3647754 0
9.4988594 3.4949272 2.3693962 0
9.7110777 3.502984 2.3696687 0
9.8675814 3.4883339 2.3634417 0
10.102822 3.528116 2.3709855 0
10.307902 3.4940224 2.3860099 0
10.503188 3.4952927 2.3685796 0
10.661935 3.4933937 2.391093 0
10.898608 3.4850917 2.3859556 0
11.077928 3.4896193 2.372843 0
11.305813 3.5114715 2.3832657 0
11.49853 3.445569 2.3796382 0
11.664688 3.4852469 2.3683872 0
11.86241 3.4773893 2.3927193 0
12.065833 3.4996462 2.3985071 0
12.336232 3.433111 2.3864088 0
12.415667 3.4725132 2.3855438 0
13.12305 3.591594 2.3991013 0
13.218621 3.5064352 2.3380752 0
13.525958 3.5602505 2.3857641 0
16.104687 3.5094852 2.368912 0
-5.2138448 3.6742108 2.2809732 0
-5.1189847 3.6989603 2.2998772 0
-4.9172335 3.7535748 2.2845976 0
-4.7289267 3.7832527 2.2933683 0
-4.5994306 3.7941632 2.2898397 0
-2.6489575 3.7561884 2.3244028 0
-2.4351037 3.6768949 2.3157248 0
-2.3046489 3.6981244 2.2951992 0
-2.0984018 3.7234664 2.2969768 0
-1.8986424 3.746058 2.3007402 0
-1.6983203 3.7678006 2.3035173 0
-1.5103682 3.7806811 2.2967694 0
-1.373964 3.7797904 2.2998574 0
6.7814398 3.708936 2.3497055 0
6.8523064 3.6920509 2.3092821 0
7.0819325 3.6956272 2.2725675 0
7.2152967 3.7587204 2.2618613 0
7.985981 3.7149208 2.298981 0
8.0993233 3.6982942 2.3143482 0
8.3124676 3.6985104 2.3252115 0
8.5163851 3.706151 2.3344553 0
8.6721067 3.696636 2.3431511 0
8.9235182 3.7172096 2.3485346 0
9.0901794 3.7007797 2.3560622 0
9.3007393 3.7052197 2.3623016 0
9.5182619 3.6902614 2.3535464 0
9.6904221 3.6899056 2.3646472 0
9.8475266 3.691366 2.3565252 0
10.105679 3.7006686 2.3746114 0
10.318146 3.7175832 2.3639004 0
10.485299 3.716121 2.3745136 0
10.655544 3.7039483 2.3917339 0
10.876605 3.6904268 2.3738546 0
11.09461 3.7404137 2.3767116 0
11.27325 3.692169 2.3914416 0
11.428514 3.7131917 2.3745208 0
11.723671 3.6558104 2.3925066 0
11.845767 3.7102664 2.3939214 0
12.361387 3.7297416 2.3966126 0
12.659908 3.7905188 2.349431 0
13.101339 3.7296205 2.347779 0
13.282228 3.7312961 2.3562841 0
13.573802 3.711529 2.3982258 0
13.95491 3.7968292 2.3603976 0
14.105127 3.6776044 2.3752911 0
-5.0829778 3.8481445 2.3035207 0
-4.9016395 3.8757756 2.3012414 0
-4.6942883 3.8959143 2.2979491 0
-4.4955621 3.9098456 2.3009348 0
-4.3005543 3.9305751 2.3036845 0
-4.09585 3.9491134 2.3007705 0
-3.9000363 3.9688687 2.2948873 0
-3.7162762 3.978622 2.2959728 0
-3.5031033 3.9710448 2.3058739 0
-3.3212414 3.9842944 2.2837462 0
-3.157716 3.9917176 2.2784412 0
-2.6778109 3.8186173 2.2876878 0
-2.5321743 3.8795636 2.3042762 0
-1.8902507 3.8112009 2.3043938 0
-1.6798722 3.8163428 2.2978659 0
-1.462294 3.8479269 2.2985249 0
-1.3688458 3.8826292 2.2948122 0
6.5245595 3.9983609 2.3163645 0
6.7661395 3.9096951 2.3419287 0
6.8776078 3.8918567 2.2979991 0
7.0725722 3.9037573 2.2745607 0
7.329998 3.9453547 2.2240179 0
7.9715834 3.859462 2.298779 0
8.095562 3.8904514 2.3069923 0
8.3438663 3.8900535 2.3306229 0
8.5087299 3.9028304 2.3320601 0
8.6502905 3.9013467 2.3447397 0
8.9168797 3.9067824 2.3461645 0
9.1135063 3.903183 2.3660283 0
9.285449 3.8983216 2.3581927 0
9.5202436 3.9041021 2.3556187 0
9.6973724 3.89767 2.3718781 0
9.8966389 3.8923204 2.3568063 0
10.093419 3.8877172 2.374913 0
10.318722 3.8984647 2.3722038 0
10.474529 3.8820083 2.3759747 0
10.736013 3.9098184 2.3841798 0
11.135267 3.9113262 2.3856158 0
11.284822 3.9032857 2.3834713 0
11.49437 3.9272463 2.365674 0
11.749947 3.9204464 2.3866222 0
11.833591 3.9145722 2.3857832 0
12.299526 3.8500037 2.3971877 0
12.991003 3.8735085 2.3985355 0
13.123661 3.9017019 2.3717899 0
13.471384 3.9048276 2.3936682 0
-4.7238207 4.0030499 2.3594294 0
-4.4813266 4.0035806 2.3193226 0
-4.2850885 4.0153756 2.2830808 0
-4.0955672 4.0256038 2.3039548 0
-3.8822179 4.0254622 2.299818 0
-3.6854527 4.022646 2.3036759 0
-3.5010958 4.0353808 2.3069165 0
-3.3018873 4.0551991 2.3038366 0
-3.1019249 4.0732908 2.2950993 0
-2.9070673 4.0967717 2.3024974 0
-2.7405796 4.1057591 2.2851536 0
-1.4256444 4.1109176 2.3003385 0
-1.3693146 4.0784826 2.2964725 0
-1.1840217 4.1965094 2.2128778 0
6.3857265 4.1640143 2.3476758 0
6.5026011 4.1310344 2.3358283 0
6.7122283 4.0901933 2.3314795 0
6.8811889 4.1008115 2.2928329 0
7.0582852 4.1005354 2.2742825 0
7.2839165 4.1288829 2.2420635 0
7.9529276 4.0889878 2.3037066 0
8.0412807 4.0736132 2.3025577 0
8.3056717 4.1060743 2.3362651 0
8.4989719 4.10186 2.3347704 0
8.68256 4.0980473 2.345119 0
8.9200821 4.0983033 2.3486657 0
9.1203375 4.0982695 2.3600669 0
9.2774363 4.0942812 2.3525746 0
9.5165253 4.0990291 2.356262 0
9.6844063 4.0974116 2.367346 0
9.9111843 4.0884805 2.3727744 0
10.082594 4.1081753 2.3808811 0
10.327756 4.1122112 2.3681865 0
10.496747 4.0874758 2.3836296 0
10.786674 4.1228609 2.3800902 0
11.115355 4.0890822 2.3852232 0
11.301223 4.1176906 2.3822153 0
11.500253 4.0057983 2.3539915 0
11.678746 4.0845475 2.3746762 0
11.873688 4.034359 2.3872442 0
12.211222 4.027288 2.3577819 0
12.630153 4.07024 2.3522165 0
13.086238 4.1206875 2.3878846 0
13.22467 4.0742688 2.3642378 0
13.428361 4.1098018 2.3972685 0
14.760356 4.1153526 2.3121259 0
15.099946 4.1591368 2.3755574 0
15.997642 4.1069059 2.3577189 0
16.111935 4.1474566 2.2478509 0
-1.434456 4.2497826 2.3156643 0
-1.3010765 4.2848783 2.3083234 0
-1.0953776 4.3019695 2.3054795 0
-0.90030932 4.3186054 2.3075588 0
-0.70102578 4.3473325 2.3065321 0
-0.50474554 4.3603315 2.2999325 0
-0.30416065 4.3696699 2.2862642 0
-0.11109345 4.3757663 2.2616 0
0.087062709 4.3828468 2.2360396 0
0.27807951 4.3816876 2.2525699 0
0.51968455 4.3777499 2.2451317 0
0.69039083 4.3707027 2.252624 0
0.9057014 4.3758988 2.2405055 0
1.0811013 4.3563347 2.2568262 0
1.2865397 4.3794608 2.2465818 0
1.4665785 4.3791356 2.2612984 0
1.682323 4.393662 2.2111511 0
1.8362904 4.3939738 2.2582586 0
6.3807645 4.3084803 2.3231456 0
6.4752913 4.2984614 2.3292034 0
6.7056866 4.2970848 2.2935956 0
6.9008303 4.2967539 2.2845433 0
7.051713 4.2949467 2.2732224 0
7.2844872 4.3270788 2.2481971 0
7.4341855 4.2236681 2.2447057 0
7.9481115 4.2770872 2.2887816 0
8.1627464 4.3814321 2.3347764 0
8.3236456 4.3001013 2.3265486 0
8.4976301 4.299221 2.3403907 0
8.6756907 4.3057323 2.3401873 0
8.8991041 4.3086214 2.3468094 0
9.0980854 4.2898598 2.355258 0
9.2858143 4.3050718 2.3523705 0
9.508028 4.3058772 2.3607545 0
9.6604004 4.2911968 2.3706429 0
9.9246359 4.3025975 2.3695409 0
10.051743 4.285481 2.3838148 0
10.309475 4.3108454 2.3713009 0
10.485864 4.2935143 2.3922355 0
10.680169 4.3439932 2.3698981 0
10.924713 4.3432922 2.3889816 0
11.0987 4.30758 2.3786461 0
11.269528 4.3261938 2.3653288 0
11.473524 4.2062578 2.389327 0
11.666393 4.2541008 2.3812535 0
11.862552 4.2178702 2.3972411 0
12.087387 4.2424822 2.3683701 0
12.436531 4.3086815 2.3677487 0
13.036935 4.244133 2.379545 0
13.32397 4.2864432 2.3885961 0
13.839573 4.2308407 2.3591597 0
14.875854 4.2628603 2.3303616 0
16.022367 4.312717 2.2396016 0
-0.88240433 4.4047942 2.2759769 0
-0.65629357 4.4114876 2.3301139 0
-0.47176561 4.41539 2.3366289 0
-0.28577989 4.4198565 2.3295939 0
-0.095569491 4.4302444 2.3261199 0
0.10142767 4.4409919 2.3123085 0
0.29929045 4.4541535 2.3029711 0
0.49950618 4.4723773 2.3006113 0
0.69939125 4.4860229 2.2992315 0
0.90090883 4.5027924 2.2993355 0
1.1001947 4.5224423 2.3003991 0
1.2959098 4.5357461 2.2897031 0
1.4928962 4.5475569 2.2800944 0
1.6949348 4.5533614 2.2580168 0
1.8985287 4.5691829 2.2485299 0
2.0874178 4.5744438 2.2461076 0
2.2873023 4.5677781 2.2600102 0
2.4791234 4.5619898 2.2701747 0
2.7138946 4.5712681 2.2753699 0
2.8995366 4.5978603 2.3136723 0
6.3813996 4.5003605 2.3385258 0
6.4673376 4.4953947 2.3274305 0
6.6985054 4.5072598 2.2876024 0
6.9145956 4.4956098 2.2745922 0
7.0396829 4.4989614 2.267267 0
7.2772417 4.4851327 2.2533963 0
8.1573076 4.5120335 2.3156693 0
8.3210125 4.51685 2.3282027 0
8.4832802 4.4953785 2.3411677 0
8.6881285 4.5039644 2.3566489 0
8.9173965 4.5107064 2.3520136 0
9.0848398 4.4904885 2.3561897 0
9.2696199 4.4914732 2.3606462 0
9.4992504 4.5173826 2.3558807 0
9.664032 4.488904 2.378304 0
9.9199362 4.5053754 2.3707266 0
10.102531 4.5094576 2.3722615 0
10.303275 4.500597 2.3731444 0
10.41176 4.5606499 2.3903856 0
10.696324 4.4975486 2.3674235 0
10.938211 4.4951448 2.3757796 0
11.100595 4.5365038 2.3785617 0
11.291584 4.4946537 2.3773084 0
11.663342 4.53476 2.3802714 0
12.036356 4.5539713 2.3884602 0
12.541941 4.4716415 2.3678916 0
13.190554 4.51472 2.3894196 0
13.522701 4.584775 2.3478358 0
15.966474 4.4521513 2.3558431 0
0.58696938 4.601244 2.3673232 0
0.70925552 4.6116152 2.3620486 0
0.8962124 4.6166539 2.3417315 0
1.1081569 4.6246772 2.337507 0
1.3206326 4.6220002 2.3436065 0
1.5070527 4.6188169 2.3459926 0
1.7057108 4.6311707 2.3551977 0
1.901832 4.643033 2.3445096 0
2.1060731 4.6451921 2.3188403 0
2.299139 4.6492796 2.2979174 0
2.5058198 4.6687775 2.2866509 0
2.6993239 4.6910415 2.2786398 0
2.8975005 4.7095423 2.2818751 0
3.0992999 4.7294807 2.2800453 0
3.2970324 4.7447543 2.2769887 0
3.4981036 4.7555385 2.2770245 0
3.6933434 4.7633419 2.2882652 0
3.8971014 4.7718992 2.3027778 0
4.0850639 4.7736063 2.2916555 0
4.293396 4.7744718 2.3039112 0
4.4670219 4.7642803 2.3133039 0
4.8723803 4.7649541 2.28616 0
5.0899181 4.7825193 2.3419137 0
5.2565942 4.7925353 2.3844142 0
5.4503484 4.7740669 2.2526941 0
6.3716984 4.695426 2.3572488 0
6.4969182 4.7011409 2.2988157 0
6.6957808 4.6610184 2.2684972 0
6.9105039 4.6681666 2.2588463 0
7.0224724 4.6508217 2.2622516 0
7.9630075 4.7462478 2.3019483 0
8.1105165 4.6914001 2.3135862 0
8.3023148 4.699913 2.3277421 0
8.478261 4.6942797 2.3421614 0
8.6899004 4.7098026 2.3521063 0
8.901823 4.6980381 2.3523002 0
9.1079655 4.7047615 2.3443594 0
9.2892714 4.7034903 2.3570435 0
9.5055475 4.7093592 2.3631086 0
9.675252 4.6873121 2.3527858 0
9.8933878 4.7077174 2.3651547 0
10.141706 4.7180719 2.370018 0
10.271526 4.6933584 2.3809869 0
10.485875 4.7227087 2.3926055 0
10.70494 4.6913128 2.3716719 0
10.897991 4.682241 2.3822076 0
11.084201 4.7204547 2.3785164 0
11.361636 4.742878 2.3750987 0
11.519825 4.7304993 2.376816 0
11.690389 4.6803598 2.3785996 0
11.962142 4.7327657 2.3872883 0
12.051438 4.6227355 2.3953166 0
12.312563 4.6826162 2.3820677 0
12.43584 4.7249322 2.3720322 0
12.676835 4.7034125 2.372333 0
13.138113 4.7277288 2.3882568 0
13.824533 4.6959109 2.372088 0
14.749623 4.6242194 2.3210027 0
15.959077 4.6963978 2.3159864 0
2.7516017 4.8075271 2.2180159 0
2.8574624 4.8213644 2.2461944 0
3.1364303 4.8081117 2.3354506 0
3.3123167 4.8151851 2.3460121 0
3.5090978 4.8177385 2.2971122 0
3.7003534 4.8239536 2.2874546 0
3.9034839 4.8322191 2.2847483 0
4.102715 4.8485465 2.281219 0
4.3025818 4.8607388 2.2824936 0
4.5050097 4.9111228 2.2929916 0
4.6983514 4.9397759 2.309844 0
4.8947096 4.9571652 2.3044889 0
5.0955825 4.9673958 2.3126993 0
5.3005724 4.9668651 2.2977188 0
5.4916143 4.9626055 2.3271806 0
5.6733012 4.9254403 2.3429339 0
5.9146481 4.9616733 2.3249087 0
6.066906 4.9479375 2.3386881 0
6.3685336 4.9086447 2.3493593 0
6.4798884 4.8902125 2.2906439 0
6.7177906 4.8466492 2.3316293 0
7.9693823 4.8844204 2.3151364 0
8.1416216 4.8944621 2.3227117 0
8.2991934 4.894227 2.3386717 0
8.4626894 4.8800302 2.3531384 0
8.7122154 4.9104099 2.3449101 0
8.8939018 4.8884664 2.3557296 0
9.107234 4.8977942 2.3447411 0
9.3088884 4.9054298 2.3488939 0
9.481391 4.9150929 2.3552704 0
9.7056875 4.8615303 2.3548455 0
9.8757582 4.9117546 2.3645568 0
10.092961 4.8848715 2.3594737 0
10.287445 4.8677335 2.3861005 0
10.7081 4.8904619 2.3768246 0
10.939531 4.9796724 2.3843808 0
11.068871 4.8690662 2.3694346 0
11.286111 4.9308372 2.362607 0
11.514808 4.9436846 2.3800042 0
12.115713 4.962708 2.3809111 0
12.365759 4.9899421 2.3816643 0
12.467177 4.8798728 2.3863888 0
13.071292 4.8804126 2.3808365 0
13.760572 4.8338742 2.3690464 0
14.861042 4.9072146 2.3625669 0
15.919721 4.9720106 2.3548474 0
3.9578288 5.0887761 2.2879205 0
4.1275225 5.0867357 2.3279247 0
4.5390749 5.083365 2.2480469 0
4.6997647 5.1104245 2.2546751 0
4.9088283 5.1152802 2.2675569 0
5.1047769 5.0730772 2.2793319 0
5.3032575 5.0577102 2.2854462 0
5.4997692 5.0587649 2.299063 0
5.6939273 5.0700712 2.2994347 0
5.8902011 5.0813298 2.3055761 0
6.0887127 5.0957108 2.3116446 0
6.3138833 5.0939794 2.3183806 0
6.4829316 5.0849304 2.2677164 0
7.9449921 5.0454588 2.3371162 0
8.1658106 5.0552425 2.3196521 0
8.2981796 5.0698419 2.3441303 0
8.5151739 5.1009841 2.3338761 0
8.7055292 5.1011529 2.3460131 0
8.888175 5.0988355 2.3621137 0
9.096983 5.0980678 2.3540316 0
9.2887449 5.089469 2.3556423 0
9.4673004 5.1060801 2.3543131 0
9.7305155 5.1021266 2.3640234 0
9.8936977 5.0908895 2.3650436 0
10.120131 5.1044893 2.3648572 0
10.262835 5.0837598 2.3798878 0
10.522027 5.1213717 2.3691971 0
10.672619 5.0852818 2.3730872 0
10.919325 5.077857 2.3870111 0
11.119199 5.097281 2.3798127 0
11.295073 5.1004486 2.3706598 0
11.512797 5.093801 2.3622231 0
11.735235 5.1385469 2.3891525 0
11.849006 5.106142 2.3890085 0
12.066923 5.0972462 2.3890212 0
12.253656 5.1424961 2.3632481 0
12.620106 5.1676378 2.3661246 0
12.954317 5.1546855 2.3811646 0
13.02465 5.0309896 2.3840463 0
13.79378 5.1637526 2.3843927 0
13.90629 5.0407791 2.393471 0
15.604587 5.1535654 2.3747241 0
15.960056 5.1110549 2.2366672 0
1.2736524 5.3555169 2.2197928 0
4.541553 5.2470651 2.2838056 0
4.7317853 5.2342124 2.2626293 0
4.9041944 5.2606716 2.2621217 0
5.1058969 5.2686515 2.2649267 0
5.2996879 5.2700377 2.2653067 0
5.5037165 5.2872696 2.2609625 0
5.6954327 5.2717676 2.2633359 0
5.9029117 5.2952943 2.2797759 0
6.0942941 5.3000879 2.2821391 0
6.3080564 5.2989478 2.2827179 0
6.466126 5.2903514 2.252836 0
8.2850828 5.2460527 2.3555551 0
8.5771666 5.2647519 2.3324461 0
8.7262526 5.2949371 2.3488698 0
8.913579 5.2931943 2.3535209 0
9.0901232 5.2835855 2.3494854 0
9.2881651 5.2913871 2.3554611 0
9.4961901 5.2991467 2.3617804 0
9.7050362 5.3043242 2.3659449 0
9.9022961 5.3170915 2.3690684 0
10.075154 5.3086586 2.3565054 0
10.229777 5.3240395 2.3855605 0
10.521269 5.3043089 2.3725169 0
10.632863 5.2982373 2.3753736 0
10.925372 5.2564502 2.3778288 0
11.107769 5.2921352 2.3785996 0
11.246073 5.3323441 2.3683016 0
11.474382 5.2895708 2.3871851 0
12.124031 5.2818599 2.3180716 0
12.250874 5.2772322 2.3711066 0
12.947306 5.3108149 2.3732333 0
13.019524 5.2051077 2.3699675 0
13.762544 5.3140378 2.3860614 0
14.070723 5.289289 2.3992836 0
14.493504 5.2075138 2.3004074 0
15.928203 5.3262935 2.2758431 0
0.66211963 5.4755945 2.2004271 0
0.93754375 5.5336185 2.2296515 0
1.1449105 5.5484567 2.2194986 0
1.2783713 5.5813713 2.2082384 0
1.8931787 5.5434303 2.2033808 0
4.7832866 5.5750589 2.2766929 0
4.941349 5.5294027 2.2734528 0
5.1126986 5.4985785 2.2712748 0
5.3043404 5.5149975 2.2831824 0
5.4926848 5.5211554 2.2935214 0
5.6931272 5.5039425 2.2963488 0
5.9015703 5.4863548 2.3049614 0
6.1065106 5.5141168 2.3054464 0
6.2944708 5.4919577 2.3015018 0
6.4618134 5.4781737 2.266618 0
8.5473471 5.4047961 2.2864501 0
8.701149 5.4249687 2.3257992 0
8.9366198 5.4382815 2.3290622 0
9.0838909 5.4824381 2.3460145 0
9.3081789 5.5169668 2.357549 0
9.4859838 5.4816952 2.3560882 0
9.7063732 5.504353 2.3621962 0
9.899704 5.499392 2.3594451 0
10.073841 5.478683 2.3650019 0
10.302951 5.5207047 2.3639424 0
10.482944 5.4991121 2.3667908 0
10.793131 5.495296 2.3791478 0
10.939171 5.5180597 2.3711774 0
11.115888 5.4937816 2.3716927 0
11.220607 5.4973526 2.3683512 0
11.538427 5.4968967 2.351229 0
11.694357 5.5266514 2.3972425 0
12.120342 5.4974794 2.3476176 0
12.536808 5.4010735 2.3595636 0
12.625542 5.5955286 2.3681102 0
12.917603 5.5449128 2.3686793 0
15.473302 5.5199995 2.3579121 0
15.700517 5.4432268 2.3889368 0
15.902963 5.501986 2.3592558 0
0.12157404 5.6427317 2.2243016 0
0.53167504 5.743711 2.267297 0
0.80600274 5.76367 2.2126076 0
1.1108761 5.6739225 2.2342792 0
1.2250987 5.6620746 2.236568 0
1.4005988 5.6762562 2.2607579 0
1.7563627 5.6645145 2.2055502 0
1.9352733 5.694478 2.2261677 0
2.5791168 5.6552706 2.2066658 0
4.7573438 5.7190599 2.2476628 0
4.9163055 5.6964178 2.274904 0
5.1062455 5.6910963 2.2820182 0
5.3201351 5.7049117 2.2861404 0
5.4924817 5.6931405 2.299695 0
5.6910834 5.6842408 2.2914746 0
5.916368 5.7046995 2.3082814 0
6.0963206 5.6925817 2.3047473 0
6.2964277 5.6866388 2.3247402 0
6.4903402 5.6967592 2.3032022 0
6.6792431 5.730092 2.2887571 0
6.8920698 5.6526513 2.2594585 0
9.1729441 5.7822356 2.3033295 0
9.3040495 5.7021017 2.3410709 0
9.5144358 5.6712103 2.3500106 0
9.7135878 5.6893082 2.3591874 0
9.9143677 5.704812 2.357408 0
10.093058 5.6996808 2.3650813 0
10.261627 5.6904216 2.3577254 0
10.484282 5.720367 2.367784 0
10.732599 5.7023811 2.3778095 0
10.896739 5.6788335 2.3706744 0
11.103539 5.7159557 2.3763947 0
11.306371 5.6599317 2.3788383 0
11.449295 5.6856537 2.3526611 0
11.766376 5.7045555 2.351649 0
11.946216 5.6388702 2.3918273 0
12.088528 5.7218843 2.3459461 0
12.380585 5.7392435 2.3459761 0
12.467323 5.639257 2.3556657 0
12.905505 5.7342329 2.3513641 0
13.09237 5.672554 2.3914144 0
13.645613 5.676856 2.3857536 0
15.472434 5.6911449 2.2842238 0
-0.12931764 5.8973413 2.2010837 0
0.14509904 5.8013115 2.2189641 0
0.38412756 5.9014263 2.2121353 0
0.56204545 5.949317 2.2228169 0
0.70633495 5.94031 2.2208238 0
0.90951759 5.8866215 2.2357152 0
1.076956 5.939456 2.2337866 0
1.247951 5.9625797 2.2422848 0
1.4883389 5.8925476 2.2381976 0
1.6868196 5.8817682 2.2080455 0
1.800766 5.8284097 2.20083 0
2.32496 5.9784026 2.2614775 0
2.4817367 5.9078865 2.2025936 0
4.7185512 5.9660969 2.2782497 0
4.9267454 5.9051251 2.2838333 0
5.1193228 5.9115396 2.2886107 0
5.2832651 5.8740344 2.2959051 0
5.5098376 5.9043965 2.3022773 0
5.7069817 5.9107294 2.3037267 0
5.8948007 5.8895369 2.3039663 0
6.092855 5.893096 2.3150213 0
6.3258753 5.8948278 2.315259 0
6.5014591 5.9087558 2.3193529 0
6.6744156 5.901907 2.3105414 0
6.8514161 5.9109259 2.3046007 0
7.0929861 5.9170914 2.3164914 0
7.3490181 5.9389019 2.3918684 0
9.5072327 5.8273849 2.3506708 0
9.7175713 5.9024506 2.3597722 0
9.8884878 5.8829417 2.35603 0
10.09574 5.8750982 2.3567307 0
10.300146 5.8962855 2.3672869 0
10.431833 5.94415 2.3668256 0
10.703906 5.891191 2.3678472 0
10.901589 5.8948469 2.3733625 0
11.120829 5.9305997 2.3717685 0
11.329239 5.9178615 2.3789833 0
11.440642 5.8987164 2.3825092 0
11.938118 5.958281 2.3452899 0
12.055067 5.8819304 2.3403563 0
12.902911 5.8349771 2.3722682 0
13.467067 5.900229 2.3625884 0
15.382383 5.8804188 2.3948605 0
15.418232 5.9174328 2.3157449 0
-0.030933619 6.0835896 2.2431033 0
0.029885769 6.1879549 2.2267962 0
0.42141187 6.1160698 2.2131014 0
0.62238061 6.1201229 2.2094898 0
0.81193286 6.1936946 2.2005537 0
1.2929773 6.044806 2.2477593 0
1.5035981 6.1483183 2.2280288 0
1.6418741 6.1142502 2.2381339 0
1.9831474 6.1953287 2.2056456 0
2.0733347 6.0544481 2.2711122 0
2.2928319 6.1485348 2.2153196 0
2.5364392 6.1437368 2.2092004 0
2.6100149 6.0160551 2.2254622 0
4.7531443 6.0234184 2.2829204 0
4.9122171 6.0650105 2.2858286 0
5.1104226 6.0904961 2.30112 0
5.3093348 6.1273031 2.2999883 0
5.5054998 6.1082563 2.3068974 0
5.6879983 6.1034398 2.3138967 0
5.8847694 6.0982928 2.3138633 0
6.1076827 6.1225777 2.3142211 0
6.3030238 6.1029358 2.3233123 0
6.4921937 6.0922403 2.3159783 0
6.692944 6.1044903 2.3145654 0
6.9038372 6.1201677 2.3238513 0
7.0705514 6.1077824 2.320991 0
7.3137293 6.1127453 2.3829136 0
7.4932542 6.1410637 2.3678763 0
7.6044941 6.1464396 2.357126 0
9.6984081 6.0252795 2.3621645 0
9.9500427 6.0451236 2.3311672 0
10.154598 6.1192179 2.3570685 0
10.29839 6.0974917 2.3604844 0
10.434408 6.112289 2.3500049 0
10.723813 6.1077299 2.3716526 0
10.856708 6.0812283 2.3679888 0
11.115075 6.1283174 2.3719196 0
11.270036 6.1137185 2.3824232 0
11.439603 6.0827789 2.3990271 0
11.706111 6.1012197 2.3718662 0
11.945576 6.0998464 2.3719113 0
12.070562 6.0573359 2.3475566 0
12.390202 6.143115 2.3591394 0
12.842638 6.0717115 2.3415723 0
13.319589 6.0981007 2.3375638 0
13.482224 6.187273 2.3867884 0
15.370955 6.0814257 2.3139107 0
0.16605255 6.2404561 2.2233677 0
0.34312606 6.3016648 2.2118776 0
0.54000616 6.2746944 2.2527428 0
0.71364671 6.2927804 2.2282665 0
0.90451938 6.2575531 2.2350693 0
1.0891014 6.3184581 2.2476089 0
1.3030245 6.3248634 2.2281668 0
1.462633 6.3198962 2.2433555 0
1.6451328 6.3285961 2.2521191 0
1.8886119 6.3127656 2.2519937 0
2.1039925 6.3551488 2.2026491 0
2.3456807 6.2762003 2.2102442 0
2.4812703 6.2839327 2.214782 0
2.6412966 6.3932543 2.2373827 0
4.7703719 6.3880038 2.333318 0
4.9170141 6.3345246 2.3060198 0
5.1136718 6.2935424 2.2998784 0
5.31391 6.2888265 2.3032568 0
5.5063281 6.2916279 2.3015683 0
5.7045822 6.2812061 2.3043113 0
5.906105 6.2937565 2.3072391 0
6.0926304 6.3019862 2.3130655 0
6.3020487 6.3020577 2.3081007 0
6.5031934 6.3010502 2.3017116 0
6.7080755 6.2974868 2.3142116 0
6.8747468 6.2820196 2.3238735 0
7.1115203 6.3177581 2.323051 0
7.3229947 6.3135829 2.3479524 0
7.4461823 6.3081827 2.3543706 0
7.6075239 6.3684368 2.3541291 0
9.9774342 6.263206 2.3313932 0
10.272331 6.2812338 2.3729742 0
10.551306 6.267592 2.343643 0
10.715809 6.2890339 2.3580527 0
10.918415 6.2753286 2.3705654 0
11.128716 6.3141961 2.3736577 0
11.281187 6.2374182 2.3657012 0
11.437589 6.3340306 2.3506587 0
11.75988 6.2698216 2.3546138 0
11.946211 6.2459116 2.3509641 0
12.034344 6.3255811 2.3614371 0
12.428598 6.2079582 2.3525245 0
13.010962 6.2761245 2.3952994 0
13.279577 6.3042364 2.3514361 0
15.375535 6.3639436 2.3596632 0
15.403807 6.3012142 2.3138862 0
-0.17831278 6.5211072 2.2393098 0
0.38491052 6.5264482 2.216917 0
0.72903961 6.4928312 2.2154379 0
0.81428766 6.4820247 2.201895 0
1.3549473 6.4431925 2.2363901 0
1.5889677 6.4711304 2.2759628 0
1.7813991 6.572494 2.2633066 0
1.8590206 6.4593582 2.2539027 0
2.1884365 6.5356369 2.2690315 0
2.276962 6.4778361 2.2545273 0
2.5448821 6.5448399 2.2278104 0
2.6293731 6.4404621 2.2155666 0
3.0078483 6.5241861 2.2774734 0
4.9207172 6.4307694 2.3100204 0
5.0976176 6.4972343 2.3111665 0
5.3165231 6.5078907 2.3056643 0
5.5058064 6.4930172 2.3029332 0
5.7187834 6.4825501 2.3104658 0
5.906095 6.5050488 2.3100665 0
6.0871844 6.4939747 2.3025434 0
6.3000216 6.4876356 2.3019013 0
6.5117145 6.5049615 2.3114493 0
6.6807356 6.4859958 2.3151245 0
6.9109359 6.5102825 2.3141072 0
7.0857296 6.4864182 2.3173718 0
7.2973585 6.4956555 2.3300924 0
7.4992189 6.5241389 2.3373802 0
7.7159667 6.5043044 2.3520358 0
7.8797669 6.5236044 2.3385606 0
8.0303879 6.4833651 2.3699923 0
10.594179 6.4023752 2.3594956 0
10.780387 6.5299311 2.3686185 0
10.897993 6.4382114 2.3662896 0
11.09104 6.4941463 2.3717539 0
11.24782 6.554605 2.3701093 0
11.888332 6.5221868 2.3568535 0
12.047447 6.4900689 2.3759863 0
12.36332 6.4729323 2.3659482 0
12.85075 6.5187526 2.3423035 0
13.337025 6.5011101 2.3699367 0
0.082399666 6.6849384 2.2149796 0
0.29837501 6.7290998 2.2065125 0
0.51484084 6.7235365 2.2862873 0
0.69299829 6.7756581 2.2209823 0
0.95695651 6.7002296 2.2343259 0
1.1022372 6.7252593 2.2193396 0
1.3206965 6.7706556 2.2345805 0
1.6632737 6.735744 2.2427185 0
1.8977165 6.6921101 2.2514524 0
2.199857 6.6415243 2.221684 0
2.2967889 6.7335777 2.240406 0
2.5270569 6.6449766 2.2259543 0
2.9219503 6.7262368 2.2373958 0
4.9076385 6.6898403 2.3220038 0
5.0966043 6.6706705 2.3058815 0
5.3008809 6.6639023 2.2995136 0
5.5194936 6.7029066 2.3056681 0
5.7066388 6.6927695 2.3068275 0
5.9079413 6.7020798 2.2963884 0
6.0863376 6.6766849 2.2974241 0
6.3190556 6.7261157 2.3108239 0
6.4823418 6.6872663 2.3056703 0
6.7180247 6.7078686 2.3018448 0
6.889658 6.7037115 2.3221092 0
7.0897403 6.7134919 2.3333473 0
7.296999 6.6901293 2.3292198 0
7.4889936 6.6943035 2.3377903 0
7.7166858 6.6979961 2.3490841 0
7.9267969 6.719687 2.3236632 0
8.0919962 6.7334528 2.3711083 0
10.921618 6.6280427 2.3682179 0
11.185371 6.6761208 2.3638885 0
11.7434 6.7760863 2.376667 0
11.876502 6.6900029 2.3561492 0
12.015422 6.6470079 2.3954949 0
12.31963 6.7305641 2.3686974 0
13.296196 6.6711779 2.3869567 0
14.912642 6.7769513 2.3970072 0
0.76187992 6.8074327 2.2063267 0
0.8442505 6.807632 2.2362537 0
1.5280088 6.8570232 2.2266135 0
1.8767138 6.8670177 2.2609556 0
2.2509308 6.9283972 2.2600875 0
2.6902835 6.8889713 2.2319551 0
5.1673751 6.8453579 2.3099236 0
5.3073602 6.9339905 2.310668 0
5.507719 6.8886538 2.3049185 0
5.696311 6.8753657 2.2966809 0
5.8732514 6.8608828 2.3003387 0
6.1208339 6.9363089 2.301964 0
6.2762065 6.879045 2.3018353 0
6.5101666 6.8995914 2.2955718 0
6.6913342 6.8811364 2.3135633 0
6.9145808 6.8985777 2.3179479 0
7.0957232 6.8904395 2.3139894 0
7.2935109 6.8914342 2.3250992 0
7.4887834 6.8803854 2.3405113 0
7.7130508 6.9100266 2.3281658 0
7.8884277 6.8915634 2.3401914 0
8.0913639 6.8989573 2.3456235 0
8.2378788 6.9841003 2.3723338 0
11.792276 6.932478 2.3634453 0
11.935119 6.8722115 2.3523278 0
12.272747 6.9193039 2.368988 0
12.888412 6.9153862 2.3478379 0
13.074579 6.9768724 2.3630934 0
3.1456046 7.0076995 2.2691338 0
4.978281 7.0947967 2.3283241 0
5.114933 7.0571065 2.311722 0
5.3075905 7.0710258 2.295577 0
5.5293627 7.0668435 2.29796 0
5.7036223 7.1270795 2.3144705 0
5.9213281 7.1168928 2.3044415 0
6.0879726 7.1048794 2.3066993 0
6.3042941 7.0846248 2.2914252 0
6.5031533 7.0827994 2.3128793 0
6.7107525 7.1050472 2.3045096 0
6.8894663 7.0871787 2.3095517 0
7.0917501 7.1088963 2.2985539 0
7.2888842 7.105969 2.3098016 0
7.5123663 7.1162338 2.3127861 0
7.6924248 7.0767932 2.3233871 0
7.9290028 7.1265283 2.334528 0
8.0845156 7.081327 2.3471463 0
8.2950096 7.1302466 2.3483553 0
8.5308676 7.1050835 2.3797059 0
8.6476068 7.1414661 2.3711643 0
11.825471 7.0866051 2.3463151 0
12.202972 7.026701 2.3633473 0
12.793543 7.1790152 2.3349314 0
12.851146 7.1183295 2.3482783 0
13.058821 7.0929108 2.3651795 0
13.355816 7.1361771 2.3527091 0
13.748059 7.1844435 2.3952999 0
15.319203 7.1160498 2.3493979 0
5.2437463 7.3074431 2.2683959 0
5.5068488 7.3509688 2.3144758 0
5.7132497 7.3106046 2.304806 0
5.9110661 7.2604961 2.2870347 0
6.104332 7.2454753 2.2611125 0
6.3107691 7.2672844 2.256429 0
6.4957504 7.2771883 2.272701 0
6.69803 7.2802362 2.2842379 0
6.9069128 7.2927256 2.2807689 0
7.1067982 7.3206129 2.2591872 0
7.3035073 7.3264174 2.279151 0
7.4989491 7.3303742 2.2849486 0
7.6933279 7.3023977 2.3151367 0
7.8913298 7.3014355 2.3231256 0
8.0930099 7.2956715 2.3344903 0
8.2431278 7.2643189 2.346992 0
8.5126762 7.3254094 2.3649151 0
8.6331339 7.2053542 2.3693559 0
8.9374018 7.3351474 2.3367763 0
9.0832605 7.3592367 2.3451402 0
9.2978735 7.2886157 2.3643243 0
9.4038668 7.3597345 2.391547 0
11.979713 7.2288485 2.2975385 0
12.671539 7.27318 2.318028 0
13.02464 7.3087292 2.3362186 0
13.322815 7.287539 2.3623872 0
13.695739 7.3338757 2.3930459 0
18.218973 7.3807244 2.3530111 0
5.3641682 7.4295359 2.313323 0
5.5559907 7.4011769 2.3232377 0
5.8504834 7.4513335 2.2916448 0
6.6967454 7.4133239 2.2756591 0
6.8624749 7.4145646 2.3096564 0
7.076632 7.4328756 2.2648876 0
7.2936902 7.435091 2.2628961 0
7.4878197 7.4517736 2.2712507 0
7.7229671 7.4659863 2.2997396 0
7.8786564 7.4448833 2.3023844 0
8.0844479 7.4850893 2.3209896 0
8.3255224 7.5070019 2.3358665 0
8.5055122 7.5017552 2.3237188 0
8.7046347 7.52771 2.3203828 0
8.8907156 7.4910932 2.3373599 0
9.0782566 7.4997034 2.3552997 0
9.2598143 7.4546876 2.3543146 0
13.059373 7.5160856 2.3768024 0
16.007122 7.4170732 2.3724256 0
7.6862373 7.7115245 2.3985891 0
8.3309631 7.6726303 2.2946873 0
8.5114098 7.6766701 2.2989321 0
8.7063227 7.6675987 2.3058686 0
8.8917408 7.6701059 2.3010955 0
9.0816393 7.6775007 2.3138752 0
9.3169231 7.6557236 2.3256631 0
7.2626238 7.8307052 2.346262 0
7.4732366 7.8211269 2.3774421 0
9.8202963 7.9192638 2.3533041 0
14.737535 7.9532437 2.3508515 0
14.914455 7.9052963 2.3667083 0
9.7622271 8.0192719 2.344363 0
14.753098 8.1733961 2.2961137 0
14.924949 8.0830269 2.3102117 0
15.074639 8.1129732 2.2575834 0
15.258465 8.1276951 2.2587037 0
15.466146 8.1593485 2.3730526 0
15.920759 8.0452271 2.3173923 0
13.614902 8.2333946 2.2955441 0
14.053412 8.2668457 2.3601139 0
14.74393 8.3230934 2.2885094 0
14.811732 8.2229156 2.2980523 0
15.648606 8.2296791 2.2263713 0
15.838374 8.2166004 2.2317352 0
0.95635951 8.6927357 2.2302048 0
14.432676 8.7120295 2.3600178 0
18.217302 8.8989868 2.3527665 0
16.750025 11.104993 2.3523462 0
17.012323 11.190964 2.2322066 0
16.740021 11.279787 2.2143188 0
16.892963 11.306195 2.3312092 0
16.514006 11.561367 2.3286612 0
16.713703 11.441129 2.3030491 0
16.319174 11.688685 2.315659 0
16.69685 11.725564 2.2205055 0
16.251032 11.901884 2.3313992 0
9.3273039 20.382687 2.38288 0
8.5040855 20.933685 2.3231628 0
8.6830215 20.829861 2.3185499 0
8.9089155 20.901146 2.3289909 0
8.4432859 21.531811 2.3695748 0
16.325502 -2.5826199 2.573144 0
16.404827 -1.3697486 2.5942421 0
-4.2161131 -1.0450535 2.4783676 0
-4.1185908 -1.0649921 2.492101 0
-3.9031954 -1.061285 2.50085 0
-3.7000227 -1.0434009 2.4939144 0
-3.5158043 -1.0393924 2.4963305 0
-3.3046248 -1.0269523 2.4938018 0
-3.1223719 -1.0207131 2.4973621 0
-2.9225705 -1.0175673 2.502949 0
-2.67977 -1.0055774 2.5293279 0
-4.6384349 -0.83767599 2.4981987 0
-4.5134349 -0.82799977 2.5137007 0
-4.2278318 -0.88682264 2.4990082 0
-4.1504455 -0.91576797 2.5056281 0
-3.8896582 -0.9449597 2.5447509 0
-3.6988914 -0.9407298 2.5439496 0
-3.4994164 -0.94294041 2.5423694 0
-3.2967377 -0.94481188 2.533895 0
-3.0991247 -0.94405299 2.5227256 0
-2.8983779 -0.93872309 2.5212746 0
-2.7021286 -0.92806727 2.5141225 0
-2.5032465 -0.91539979 2.4978244 0
-2.3069041 -0.90048873 2.4998097 0
-2.1215086 -0.87747908 2.4916234 0
-1.9980501 -0.85728204 2.4754083 0
-1.0408064 -0.81393558 2.5305316 0
-0.99729288 -0.80821955 2.5956755 0
16.572527 -0.84088564 2.510726 0
-4.6847205 -0.68056917 2.5023086 0
-4.490499 -0.70409483 2.5008152 0
-4.2623672 -0.71429229 2.4965978 0
-4.1741395 -0.7655856 2.5047419 0
-3.6249855 -0.79192078 2.5881181 0
-3.5219331 -0.7795375 2.5225804 0
-3.3428698 -0.78685862 2.5132957 0
-3.1040361 -0.77188373 2.5205276 0
-2.8906288 -0.74948639 2.5598092 0
-2.6344495 -0.78823495 2.4898729 0
-2.567153 -0.77402723 2.5065746 0
-2.0528576 -0.65468645 2.4129565 0
-1.2310146 -0.68562305 2.4980862 0
-1.1083153 -0.73446375 2.4956408 0
-0.89862531 -0.72511679 2.4968183 0
-0.70075881 -0.70614398 2.4959137 0
-0.50022328 -0.68576694 2.4959836 0
-0.29786873 -0.66482794 2.4980221 0
-0.099287346 -0.64732689 2.4963396 0
0.10269661 -0.65704364 2.496521 0
0.29611948 -0.63995475 2.4985909 0
0.49567047 -0.62103838 2.497653 0
0.67551029 -0.61171091 2.4996247 0
0.86730814 -0.60991937 2.5183609 0
1.0793681 -0.60844809 2.4621146 0
16.453838 -0.66697502 2.4953916 0
-4.7195988 -0.49937439 2.5021799 0
-4.5108314 -0.57502812 2.498028 0
-4.3127317 -0.52883226 2.504245 0
-2.0893948 -0.54878688 2.5051701 0
-1.8400087 -0.43543807 2.4952719 0
-1.7107903 -0.42256406 2.4980469 0
